ply
format ascii 1.0
element vertex 1362
property float x
property float y
property float z
property uchar red
property uchar green
property uchar blue
property uchar alpha
end_header
441.544 314.872 1042 16 15 18 255
445.163 314.872 1042 16 14 22 255
447.49 313.965 1039 15 14 18 255
451.099 313.965 1039 17 12 19 255
452.082 312.152 1033 18 18 20 255
456.146 310.037 1026 16 18 20 255
458.365 309.13 1023 17 15 20 255
461.919 309.13 1023 17 17 25 255
464.107 308.224 1020 18 17 28 255
466.274 307.317 1017 18 17 26 255
468.421 306.411 1014 19 17 23 255
477.274 303.087 1003 18 23 21 255
480.758 303.087 1003 21 21 21 255
482.793 302.18 1000 21 22 25 255
487.725 303.087 1003 21 20 28 255
489.74 302.18 1000 22 20 31 255
-910.256 548.648 1795 62 63 58 255
-904.022 548.648 1795 65 65 61 255
-907.29 554.455 1814 64 65 66 255
-900.99 554.455 1814 63 65 58 255
-899.621 557.512 1824 65 60 67 255
-888.388 554.455 1814 71 66 77 255
-886.95 557.512 1824 84 86 90 255
-884.96 560.263 1833 96 106 97 255
-883.387 563.319 1843 102 117 105 255
-881.744 566.376 1853 105 115 107 255
-880.031 569.432 1863 103 86 89 255
-873.561 569.432 1863 106 97 94 255
-867.09 569.432 1863 120 116 91 255
-860.619 569.432 1863 122 121 96 255
-858.733 572.489 1873 111 96 82 255
-856.778 575.545 1883 98 71 64 255
-850.237 575.545 1883 84 85 62 255
-839.216 572.489 1873 61 34 50 255
-1048.09 726.232 2376 30 31 62 255
-1025.39 716.146 2343 21 31 61 255
-1010.31 711.255 2327 17 25 49 255
-1009.11 716.146 2343 26 39 60 255
-1000.98 716.146 2343 30 42 59 255
-986.058 711.255 2327 25 41 58 255
-977.976 711.255 2327 21 40 54 255
-969.894 711.255 2327 21 35 51 255
-955.611 706.67 2312 24 35 52 255
-947.581 706.67 2312 22 34 51 255
-920.857 692.61 2266 21 32 51 255
-919.03 697.195 2281 22 34 51 255
-911.107 697.195 2281 23 36 51 255
-903.185 697.195 2281 24 34 55 255
-901.542 702.086 2297 32 40 62 255
-887.339 697.195 2281 32 37 57 255
-879.417 697.195 2281 24 34 48 255
-877.607 702.086 2297 21 34 47 255
-863.571 697.195 2281 21 31 45 255
-861.651 702.086 2297 20 23 37 255
-847.726 697.195 2281 19 16 39 255
-839.803 697.195 2281 14 14 36 255
-831.881 697.195 2281 15 17 43 255
-818.54 692.61 2266 19 20 37 255
-805.66 688.331 2252 18 21 39 255
-797.839 688.331 2252 21 23 32 255
-790.017 688.331 2252 22 25 37 255
-174.5 191.95 628 59 58 75 255
-170.673 190.116 622 62 60 83 255
-167.158 188.588 617 67 63 89 255
-164.48 187.977 615 73 71 93 255
-161.288 186.754 611 78 79 98 255
-158.124 185.532 607 80 78 97 255
-156.015 185.532 607 83 89 102 255
-153.4 184.92 605 84 92 106 255
-150.298 183.698 601 83 92 114 255
-147.964 183.392 600 84 89 106 255
-145.88 183.392 600 84 90 110 255
-143.317 182.781 598 86 93 109 255
-140.531 181.864 595 92 94 114 255
-137.999 181.252 593 92 91 111 255
-135.939 181.252 593 87 92 111 255
-133.654 180.947 592 88 95 113 255
-131.153 180.335 590 88 95 113 255
-129.104 180.335 590 87 96 119 255
-126.839 180.03 589 85 95 112 255
-124.793 180.03 589 84 92 115 255
-121.914 178.807 585 83 91 111 255
-119.677 178.502 584 85 94 114 255
-118.052 179.113 586 87 94 121 255
-116.016 179.113 586 88 93 117 255
-114.175 179.419 587 88 90 117 255
-112.137 179.419 587 87 90 118 255
-110.098 179.419 587 87 92 119 255
-108.243 179.724 588 89 94 120 255
-106.201 179.724 588 90 95 121 255
-104.513 180.335 590 90 94 122 255
-102.29 180.03 589 91 96 126 255
-100.244 180.03 589 93 96 126 255
-98.2606 187.977 615 107 111 136 255
-110.191 215.486 705 109 109 140 255
-92.5991 189.505 620 97 104 138 255
-90.7374 190.116 622 104 106 141 255
-88.8618 190.728 624 108 111 142 255
-86.4165 190.116 622 110 112 145 255
-87.653 214.263 701 182 188 198 255
-85.4614 214.874 703 213 211 227 255
-83.0196 214.874 703 237 234 245 255
-80.3486 214.263 701 253 254 254 255
-77.9138 214.263 701 254 254 254 255
-75.6944 214.874 703 254 254 254 255
-73.461 215.486 705 254 254 254 255
-71.2138 216.097 707 254 254 254 255
-69.0499 217.014 710 254 254 254 255
-67.1465 218.848 716 254 254 254 255
-64.7499 219.153 717 254 254 254 255
-62.52 220.07 720 254 254 254 255
-60.2693 220.987 723 254 254 254 255
-57.9178 221.599 725 254 254 254 255
-55.6289 222.516 728 254 254 254 255
-53.1003 222.516 728 254 254 254 255
-50.6412 222.821 729 254 254 254 255
-48.1091 222.821 729 254 254 254 255
-45.7021 223.433 731 254 254 254 255
-43.2222 223.738 732 254 254 254 255
-40.7908 224.35 734 254 254 254 255
-38.5019 225.878 739 254 254 254 255
-36.081 226.795 742 254 254 254 255
-33.6392 227.712 745 254 254 254 255
-31.1766 228.629 748 254 254 254 255
-28.5786 228.629 748 254 254 254 255
-26.05 229.24 750 254 254 254 255
-23.5075 229.851 752 254 254 254 255
-20.9789 230.768 755 254 254 254 255
-18.4295 231.685 758 254 254 254 255
-15.9009 233.213 763 254 254 254 255
-13.2855 233.825 765 254 254 254 255
-10.6562 234.436 767 254 254 254 255
-8.0234 235.353 770 254 254 254 255
-5.34893 235.353 770 254 254 254 255
-2.68141 235.964 772 254 254 254 255
0 236.27 773 254 254 254 255
2.69878 237.493 777 254 254 254 255
5.39756 237.493 777 254 254 254 255
8.09634 237.493 777 254 254 254 255
10.7951 237.493 777 254 254 254 255
13.4939 237.493 777 254 254 254 255
16.2344 238.104 779 254 254 254 255
18.9401 238.104 779 254 254 254 255
21.6458 238.104 779 254 254 254 255
24.3828 238.41 780 254 254 254 255
27.1615 239.021 782 254 254 254 255
29.954 239.632 784 254 254 254 255
32.8438 240.855 788 254 254 254 255
35.7163 241.772 791 195 206 196 255
38.5609 242.383 793 102 1 74 255
41.4195 242.994 795 133 104 188 255
44.3475 243.911 798 226 254 254 255
47.1192 243.911 798 254 254 254 255
50.016 244.523 800 254 254 254 255
52.7947 244.523 800 254 254 254 255
55.8512 245.745 804 254 254 254 255
58.9355 246.968 808 254 254 254 255
61.8948 247.579 810 254 254 254 255
65.0277 248.802 814 254 254 254 255
67.855 248.802 814 254 254 254 255
70.7692 249.107 815 254 254 254 255
73.5999 249.107 815 191 160 163 255
76.3369 248.802 814 107 67 107 255
79.2615 249.107 815 77 88 121 255
82.0922 249.107 815 95 4 126 255
85.3398 250.33 819 188 254 254 255
88.6152 251.553 823 254 254 254 255
92.1406 253.387 829 254 254 254 255
95.2492 253.998 831 254 254 254 255
98.6079 255.221 835 254 254 254 255
101.751 255.832 837 254 254 254 255
104.909 256.443 839 254 254 254 255
108.337 257.666 843 254 254 254 255
111.529 258.277 845 254 254 254 255
114.87 259.194 848 254 254 254 255
118.093 259.805 850 254 254 254 255
125.603 269.586 882 254 254 254 255
128.666 269.586 882 254 254 254 255
131.73 269.586 882 254 254 254 255
134.793 269.586 882 252 252 253 255
138.169 270.198 884 252 254 254 255
141.24 270.198 884 236 254 254 255
144.31 270.198 884 118 50 68 255
153.716 281.812 922 40 19 55 255
156.578 281.201 920 56 50 70 255
159.773 281.201 920 49 49 65 255
162.437 280.284 917 49 47 64 255
165.261 279.673 915 49 46 66 255
168.071 279.061 913 52 49 71 255
170.68 278.145 910 58 58 80 255
173.458 277.533 908 67 69 92 255
176.612 277.533 908 76 78 105 255
179.172 276.616 905 82 84 114 255
183.323 278.145 910 88 94 124 255
187.508 279.673 915 90 91 119 255
191.103 280.284 917 87 88 116 255
194.288 280.284 917 84 86 115 255
197.473 280.284 917 85 86 119 255
200.658 280.284 917 89 93 123 255
203.843 280.284 917 92 96 125 255
207.028 280.284 917 95 96 126 255
210.901 281.201 920 95 96 129 255
214.096 281.201 920 94 96 126 255
217.764 281.812 922 92 95 119 255
220.967 281.812 922 85 83 106 255
224.169 281.812 922 84 79 113 255
227.371 281.812 922 92 95 125 255
230.074 281.201 920 100 112 135 255
233.269 281.201 920 109 114 145 255
236.979 281.812 922 118 120 147 255
241.483 283.341 927 113 106 145 255
246.023 284.869 932 102 101 136 255
249.26 284.869 932 103 106 146 255
255.207 287.925 942 114 118 151 255
260.125 289.759 948 122 127 159 255
374.453 343.249 1123 20 21 19 255
378.354 343.249 1123 20 19 15 255
381.233 342.332 1120 21 18 13 255
383.748 341.109 1116 22 14 20 255
389.045 338.97 1109 17 16 16 255
392.897 338.97 1109 16 14 16 255
396.748 338.97 1109 17 12 15 255
399.155 337.747 1105 17 12 18 255
405.505 330.411 1081 17 17 24 255
409.259 330.411 1081 16 13 15 255
413.014 330.411 1081 16 14 21 255
415.612 329.494 1078 28 18 40 255
419.356 329.494 1078 33 30 29 255
421.531 328.272 1074 23 18 21 255
422.885 326.438 1068 17 12 22 255
423.799 324.298 1061 23 23 42 255
427.484 324.298 1061 28 17 24 255
431.169 324.298 1061 19 15 17 255
433.625 323.381 1058 15 16 16 255
436.06 322.464 1055 16 16 16 255
438.474 321.547 1052 16 16 17 255
440.446 320.325 1048 15 15 17 255
441.544 318.491 1042 15 14 21 255
445.163 318.491 1042 15 14 19 255
447.49 317.574 1039 13 14 18 255
449.797 316.657 1036 14 17 19 255
453.395 316.657 1036 17 16 19 255
456.146 313.6 1026 17 16 17 255
459.71 313.6 1026 18 18 18 255
461.919 312.683 1023 16 18 23 255
465.472 312.683 1023 16 20 26 255
466.274 310.849 1017 16 21 23 255
476.152 308.099 1008 20 18 23 255
478.702 307.487 1006 21 21 24 255
480.758 306.57 1003 22 21 21 255
482.793 305.653 1000 21 21 29 255
487.725 306.57 1003 21 19 24 255
-910.256 554.882 1795 60 60 59 255
-904.022 554.882 1795 62 59 55 255
-907.29 560.756 1814 58 59 64 255
-900.99 560.756 1814 64 59 67 255
-899.621 563.847 1824 77 70 78 255
-893.286 563.847 1824 88 86 90 255
-886.95 563.847 1824 99 114 101 255
-884.96 566.629 1833 105 120 108 255
-883.387 569.72 1843 106 121 112 255
-881.744 572.812 1853 72 67 83 255
-880.031 575.903 1863 56 37 44 255
-868.872 572.812 1853 104 101 85 255
-857.781 569.72 1843 134 122 98 255
-851.38 569.72 1843 139 123 103 255
-863.318 582.086 1883 144 128 99 255
-861.783 585.486 1894 142 129 96 255
-855.204 585.486 1894 140 125 93 255
-848.626 585.486 1894 140 130 92 255
-1048.09 734.485 2376 139 119 85 255
-1032.39 729.23 2359 134 116 82 255
-1017.25 724.284 2343 117 114 78 255
-1009.11 724.284 2343 68 78 64 255
-994.141 719.338 2327 34 30 53 255
-986.058 719.338 2327 30 41 54 255
-977.976 719.338 2327 25 36 53 255
-963.642 714.701 2312 22 34 49 255
-949.411 710.064 2297 22 34 50 255
-941.433 710.064 2297 22 34 48 255
-926.953 705.118 2281 21 29 47 255
-919.03 705.118 2281 19 27 48 255
-911.107 705.118 2281 19 31 46 255
-903.185 705.118 2281 21 33 49 255
-895.262 705.118 2281 24 33 52 255
-887.339 705.118 2281 25 35 53 255
-879.417 705.118 2281 22 34 50 255
-871.494 705.118 2281 23 29 51 255
-857.892 700.481 2266 26 29 54 255
-855.649 705.118 2281 29 37 52 255
-847.726 705.118 2281 32 43 52 255
-839.803 705.118 2281 34 45 53 255
-837.716 710.064 2297 34 46 56 255
-818.54 700.481 2266 34 39 50 255
-805.66 696.153 2252 31 34 47 255
-797.839 696.153 2252 28 30 44 255
-790.017 696.153 2252 25 30 42 255
-782.195 696.153 2252 23 29 38 255
-178.088 195.677 633 61 54 69 255
-174.778 194.441 629 65 63 84 255
-170.947 192.586 623 73 74 95 255
-166.887 190.422 616 79 78 103 255
-164.212 189.804 614 83 88 106 255
-161.552 189.186 612 87 96 109 255
-158.124 187.64 607 89 93 114 255
-156.015 187.64 607 94 95 110 255
-153.4 187.022 605 94 95 112 255
-150.298 185.785 601 86 92 115 255
-147.717 185.167 599 88 90 107 255
-145.88 185.476 600 86 90 110 255
-143.077 184.549 597 81 84 107 255
-140.295 183.621 594 82 79 110 255
-137.766 183.003 592 80 84 100 255
-135.71 183.003 592 76 84 100 255
-133.202 182.385 590 77 88 101 255
-130.931 182.076 589 78 71 100 255
-127.134 179.603 581 77 72 103 255
-125.332 179.912 582 75 74 101 255
-122.887 179.293 580 74 71 100 255
-121.706 180.53 584 73 65 99 255
-119.472 180.221 583 74 71 100 255
-117.649 180.53 584 78 84 102 255
-115.62 180.53 584 80 86 105 255
-113.786 180.839 585 82 89 108 255
-111.946 181.148 586 83 90 109 255
-109.91 181.148 586 83 91 111 255
-108.059 181.457 587 84 93 113 255
-106.02 181.457 587 85 90 115 255
-104.158 181.766 588 88 92 117 255
-102.116 181.766 588 90 95 122 255
-100.074 181.766 588 93 93 124 255
-98.1981 182.076 589 94 98 127 255
-112.96 218.553 707 99 103 134 255
-110.191 217.934 705 105 105 137 255
-107.743 217.934 705 108 108 143 255
-92.4497 191.349 619 109 109 139 255
-90.7374 192.277 622 108 110 141 255
-88.7194 192.586 623 107 111 141 255
-86.5555 192.586 623 110 109 140 255
-84.3916 192.586 623 116 122 149 255
-90.8589 218.553 707 137 138 173 255
-87.9031 217.316 703 168 169 195 255
-85.4614 217.316 703 199 200 218 255
-83.0196 217.316 703 237 240 241 255
-80.3486 216.698 701 254 254 254 255
-77.9138 216.698 701 254 254 254 255
-75.6944 217.316 703 254 254 254 255
-73.461 217.934 705 254 254 254 255
-71.2138 218.553 707 254 254 254 255
-69.0499 219.48 710 254 254 254 255
-67.1465 221.335 716 254 254 254 255
-64.7499 221.644 717 254 254 254 255
-62.52 222.571 720 254 254 254 255
-60.1859 223.189 722 254 254 254 255
-57.9178 224.117 725 254 254 254 255
-55.4761 224.426 726 254 254 254 255
-53.1003 225.044 728 254 254 254 255
-50.5717 225.044 728 254 254 254 255
-48.1091 225.353 729 254 254 254 255
-45.7021 225.972 731 254 254 254 255
-43.2222 226.281 732 254 254 254 255
-40.7908 226.899 734 254 254 254 255
-38.3977 227.826 737 254 254 254 255
-35.9837 228.754 740 254 254 254 255
-33.7295 230.918 747 254 254 254 255
-31.1766 231.227 748 254 254 254 255
-28.655 231.845 750 254 254 254 255
-26.05 231.845 750 254 254 254 255
-23.5075 232.463 752 254 254 254 255
-20.9789 233.391 755 254 254 254 255
-18.4295 234.318 758 254 254 254 255
-15.9009 235.864 763 254 254 254 255
-13.2508 235.864 763 254 254 254 255
-10.6284 236.482 765 254 254 254 255
-7.99214 237.1 767 254 254 254 255
-5.33504 237.409 768 254 254 254 255
-2.67447 238.028 770 254 254 254 255
0 238.646 772 254 254 254 255
2.68141 238.646 772 254 254 254 255
5.36283 238.646 772 254 254 254 255
8.04424 238.646 772 254 254 254 255
10.7257 238.646 772 254 254 254 255
13.4244 238.955 773 254 254 254 255
16.151 239.573 775 254 254 254 255
18.8915 240.191 777 254 254 254 255
21.5902 240.191 777 254 254 254 255
24.3515 240.81 779 254 254 254 255
27.092 241.119 780 254 254 254 255
29.954 242.355 784 254 254 254 255
32.8438 243.592 788 254 254 254 255
35.7163 244.519 791 198 217 201 255
38.5609 245.137 793 108 1 74 255
41.4195 245.756 795 122 81 165 255
44.2919 246.374 797 212 254 254 255
47.1192 246.683 798 254 254 254 255
49.891 246.683 798 254 254 254 255
52.7947 247.301 800 254 254 254 255
55.8512 248.538 804 254 254 254 255
58.7896 249.156 806 254 254 254 255
61.742 249.774 808 254 254 254 255
64.7082 250.393 810 254 254 254 255
67.855 251.629 814 254 254 254 255
70.6823 251.629 814 254 254 254 255
73.5096 251.629 814 213 207 190 255
76.3369 251.629 814 128 77 101 255
79.1642 251.629 814 80 90 126 255
82.0922 251.938 815 92 5 110 255
85.3398 253.175 819 180 254 254 255
88.6152 254.411 823 254 254 254 255
91.9183 255.648 827 254 254 254 255
95.02 256.266 829 254 254 254 255
98.6079 258.121 835 254 254 254 255
101.751 258.739 837 254 254 254 255
104.909 259.357 839 254 254 254 255
108.08 259.976 841 254 254 254 255
111.265 260.594 843 254 254 254 255
114.87 262.139 848 254 254 254 255
118.093 262.758 850 254 254 254 255
125.318 272.031 880 254 254 254 255
128.374 272.031 880 254 254 254 255
131.73 272.65 882 254 254 254 255
134.793 272.65 882 254 254 253 255
138.169 273.268 884 254 254 254 255
141.719 274.195 887 239 254 254 255
143.984 272.65 882 117 52 54 255
153.716 285.015 922 37 22 55 255
156.918 285.015 922 57 49 68 255
159.773 284.397 920 50 47 64 255
162.969 284.397 920 48 42 58 255
165.622 283.469 917 47 45 63 255
168.439 282.851 915 51 47 69 255
170.68 281.305 910 57 56 80 255
173.458 280.687 908 64 67 90 255
176.029 279.76 905 74 74 103 255
179.172 279.76 905 82 83 111 255
183.323 281.305 910 87 91 121 255
187.508 282.851 915 88 88 117 255
191.103 283.469 917 85 86 115 255
194.288 283.469 917 85 87 115 255
197.473 283.469 917 88 91 120 255
200.658 283.469 917 92 96 125 255
203.843 283.469 917 94 99 130 255
207.028 283.469 917 98 99 125 255
210.213 283.469 917 97 98 123 255
214.096 284.397 920 92 93 121 255
217.292 284.397 920 88 89 113 255
220.967 285.015 922 75 81 104 255
224.169 285.015 922 79 86 119 255
226.878 284.397 920 94 97 130 255
230.074 284.397 920 99 104 135 255
232.508 283.469 917 104 110 142 255
236.979 285.015 922 109 113 143 255
240.962 285.942 925 106 106 140 255
245.495 287.488 930 99 99 133 255
248.725 287.488 930 100 104 140 255
253.31 289.033 935 110 115 148 255
257.107 289.652 937 118 121 155 255
378.354 347.149 1123 24 18 16 255
381.233 346.222 1120 23 17 14 255
382.716 344.058 1113 23 16 15 255
385.193 342.821 1109 23 16 18 255
389.045 342.821 1109 22 16 17 255
392.897 342.821 1109 21 12 14 255
401.75 334.166 1081 20 13 16 255
404.379 333.239 1078 17 12 20 255
408.124 333.239 1078 15 15 14 255
411.868 333.239 1078 16 15 19 255
415.612 333.239 1078 21 17 30 255
419.356 333.239 1078 27 33 32 255
421.531 332.002 1074 25 17 20 255
427.484 327.983 1061 25 17 25 255
431.169 327.983 1061 21 15 17 255
434.854 327.983 1061 17 14 14 255
436.06 326.129 1055 14 15 15 255
436.806 323.965 1048 14 14 17 255
439.186 323.037 1045 14 14 14 255
441.544 322.11 1042 17 14 21 255
445.163 322.11 1042 17 13 18 255
447.49 321.183 1039 14 15 15 255
449.797 320.255 1036 14 14 15 255
452.082 319.328 1033 17 13 15 255
451.259 316.237 1023 18 14 15 255
453.478 315.309 1020 16 17 16 255
457.021 315.309 1020 16 16 17 255
460.564 315.309 1020 16 16 19 255
464.107 315.309 1020 17 18 22 255
477.569 312.527 1011 20 18 23 255
477.274 310.054 1003 21 21 24 255
479.32 309.127 1000 21 21 21 255
479.897 307.272 994 20 21 25 255
484.808 308.199 997 20 20 24 255
-910.256 561.117 1795 63 65 61 255
-908.555 563.93 1804 67 71 61 255
-912.292 570.182 1824 72 70 74 255
-905.956 570.182 1824 79 86 82 255
-899.621 570.182 1824 91 92 91 255
-897.693 572.996 1833 102 112 100 255
-891.327 572.996 1833 112 117 112 255
-884.96 572.996 1833 112 122 110 255
-883.387 576.122 1843 104 116 117 255
-876.985 576.122 1843 63 41 50 255
-771.858 510.788 1634 37 27 16 255
-758.68 505.787 1618 90 84 79 255
-753.06 505.787 1618 133 123 104 255
-747.44 505.787 1618 140 125 102 255
-738.611 503.599 1611 148 128 102 255
-861.783 592.064 1894 148 129 100 255
-859.719 595.19 1904 145 129 106 255
-848.626 592.064 1894 151 128 108 255
-722.898 508.288 1626 152 133 113 255
-717.25 508.288 1626 150 135 112 255
-711.603 508.288 1626 149 132 106 255
-709.428 510.788 1634 145 132 109 255
-706.768 512.977 1641 92 103 75 255
-986.058 727.42 2327 32 37 52 255
-971.672 722.731 2312 25 35 52 255
-963.642 722.731 2312 21 32 49 255
-949.411 718.042 2297 19 31 50 255
-941.433 718.042 2297 21 33 47 255
-933.455 718.042 2297 21 27 46 255
-919.03 713.041 2281 19 24 46 255
-911.107 713.041 2281 19 20 35 255
-903.185 713.041 2281 23 21 46 255
-889.375 708.352 2266 17 18 51 255
-887.339 713.041 2281 18 26 53 255
-879.417 713.041 2281 30 38 58 255
-871.494 713.041 2281 36 47 61 255
-857.892 708.352 2266 40 53 68 255
-850.022 708.352 2266 45 56 67 255
-847.726 713.041 2281 45 55 67 255
-834.281 708.352 2266 41 54 67 255
-739.247 633.64 2027 39 53 68 255
-727.872 629.889 2015 37 49 62 255
-770.243 673.028 2153 33 45 57 255
-792.524 699.286 2237 32 42 55 255
-779.843 694.91 2223 32 36 52 255
-178.37 198.188 634 72 58 74 255
-174.778 196.625 629 79 82 98 255
-170.673 194.437 622 85 89 104 255
-166.887 192.562 616 94 98 110 255
-164.212 191.936 614 95 98 114 255
-161.552 191.311 612 91 96 110 255
-159.165 190.999 611 88 90 114 255
-148.818 180.995 579 81 89 104 255
-146.554 180.683 578 79 88 106 255
-144.796 180.995 579 77 78 101 255
-142.785 180.995 579 73 72 90 255
-139.003 181.308 580 57 44 80 255
-137.224 181.621 581 56 45 81 255
-135.206 181.621 581 58 32 69 255
-133.188 181.621 581 47 39 82 255
-131.396 181.933 582 47 39 77 255
-129.375 181.933 582 58 45 85 255
-127.134 181.621 581 46 46 84 255
-125.332 181.933 582 45 42 87 255
-123.098 181.621 581 58 42 86 255
-121.289 181.933 582 49 47 86 255
-119.267 181.933 582 50 43 82 255
-117.447 182.246 583 56 47 85 255
-115.422 182.246 583 61 44 84 255
-113.397 182.246 583 71 52 90 255
-111.372 182.246 583 65 59 89 255
-109.535 182.558 584 67 64 99 255
-108.059 183.496 587 77 75 95 255
-106.02 183.496 587 80 82 104 255
-104.158 183.809 588 82 89 106 255
-102.116 183.809 588 85 94 115 255
-99.9035 183.496 587 89 98 121 255
-98.0314 183.809 588 91 99 125 255
-96.642 185.059 592 93 97 126 255
-94.9054 185.684 594 98 98 131 255
-92.8422 185.684 594 103 104 136 255
-92.3004 193.187 618 114 119 141 255
-90.2997 193.499 619 115 117 142 255
-88.5769 194.437 622 112 112 143 255
-86.5555 194.75 623 108 110 140 255
-90.8589 221.008 707 145 145 178 255
-88.0282 220.07 704 178 183 196 255
-85.4614 219.758 703 198 196 212 255
-83.0196 219.758 703 219 217 236 255
-80.3486 219.133 701 236 227 250 255
-77.9138 219.133 701 248 245 254 255
-75.802 220.07 704 254 254 254 255
-73.461 220.383 705 254 254 254 255
-71.2138 221.008 707 254 254 254 255
-68.8554 221.321 708 254 254 254 255
-66.8651 222.884 713 254 254 254 255
-64.6596 223.822 716 254 254 254 255
-62.4332 224.759 719 254 254 254 255
-60.0192 225.072 720 254 254 254 255
-57.7581 226.01 723 254 254 254 255
-55.3997 226.635 725 254 254 254 255
-52.9544 226.948 726 254 254 254 255
-50.5717 227.573 728 253 254 254 255
-48.1091 227.885 729 244 248 250 255
-45.5771 227.885 729 235 233 242 255
-43.1631 228.511 731 244 248 252 255
-40.7908 229.448 734 253 254 254 255
-38.3456 230.074 736 254 254 254 255
-35.9837 231.324 740 254 254 254 255
-33.5489 232.262 743 254 254 254 255
-31.135 233.512 747 254 254 254 255
-28.5786 233.825 748 254 254 254 255
-26.05 234.45 750 254 254 254 255
-23.5388 235.388 753 254 254 254 255
-21.0067 236.326 756 254 254 254 255
-18.4295 236.951 758 254 254 254 255
-15.8592 237.889 761 254 254 254 255
-13.2508 238.514 763 254 254 254 255
-10.6006 238.514 763 254 254 254 255
-7.9713 239.139 765 254 254 254 255
-5.32809 239.764 767 254 254 254 255
-2.66405 239.764 767 254 254 254 255
0 240.702 770 254 254 254 255
2.66752 240.077 768 254 254 254 255
5.34893 240.702 770 254 254 254 255
8.0234 240.702 770 254 254 254 255
10.6979 240.702 770 254 254 254 255
13.4071 241.327 772 254 254 254 255
16.151 242.265 775 254 254 254 255
18.8428 242.265 775 254 254 254 255
21.5902 242.89 777 254 254 254 255
24.3515 243.515 779 254 254 254 255
27.092 243.828 780 254 254 254 255
29.954 245.078 784 254 254 254 255
32.7605 245.704 786 254 254 254 255
35.7163 247.267 791 194 202 199 255
38.5609 247.892 793 102 1 76 255
41.4195 248.517 795 120 62 155 255
44.2919 249.142 797 212 254 254 255
47.1192 249.455 798 254 254 254 255
49.891 249.455 798 254 254 254 255
52.6627 249.455 798 254 254 254 255
55.7123 250.705 802 254 254 254 255
58.7896 251.956 806 254 254 254 255
61.742 252.581 808 254 254 254 255
64.7082 253.206 810 254 254 254 255
67.6883 253.831 812 254 254 254 255
70.6823 254.456 814 252 254 254 255
73.5096 254.456 814 193 169 175 255
76.1494 253.831 812 110 69 99 255
78.9697 253.831 812 80 88 124 255
81.7901 253.831 812 80 2 95 255
85.1314 255.394 817 170 251 254 255
88.3998 256.645 821 254 254 254 255
91.696 257.895 825 254 254 254 255
95.02 259.145 829 254 254 254 255
98.3717 260.396 833 254 254 254 255
101.508 261.021 835 254 254 254 255
104.658 261.646 837 254 254 254 255
107.823 262.271 839 254 254 254 255
111.001 262.897 841 254 254 254 255
114.464 264.147 845 254 254 254 255
118.649 266.96 854 254 254 254 255
124.036 272.275 871 254 254 254 255
128.374 275.088 880 254 254 254 255
131.73 275.713 882 254 254 254 255
134.793 275.713 882 254 254 254 255
138.169 276.338 884 254 254 254 255
141.719 277.276 887 240 254 254 255
144.31 276.338 884 128 41 40 255
154.216 289.155 925 46 19 53 255
157.429 289.155 925 55 49 66 255
160.121 288.217 922 49 49 62 255
162.969 287.592 920 47 45 57 255
165.622 286.654 917 45 47 60 255
168.439 286.029 915 50 52 69 255
171.242 285.404 913 57 59 81 255
173.458 283.841 908 64 69 89 255
176.029 282.903 905 73 77 101 255
179.172 282.903 905 81 84 109 255
183.323 284.466 910 86 90 116 255
187.508 286.029 915 86 87 116 255
190.686 286.029 915 87 87 116 255
193.864 286.029 915 90 90 118 255
197.473 286.654 917 92 96 121 255
200.658 286.654 917 95 97 124 255
203.843 286.654 917 94 94 126 255
207.028 286.654 917 89 93 117 255
210.213 286.654 917 88 93 116 255
214.096 287.592 920 87 90 112 255
217.292 287.592 920 84 84 109 255
220.487 287.592 920 84 83 113 255
223.683 287.592 920 91 103 123 255
226.878 287.592 920 98 102 131 255
229.323 286.654 917 102 103 135 255
232.508 286.654 917 105 107 139 255
236.465 287.592 920 112 112 143 255
240.181 288.217 922 108 109 138 255
244.703 289.78 927 94 100 133 255
247.923 289.78 927 96 105 137 255
251.143 289.78 927 108 114 148 255
255.735 291.343 932 116 122 154 255
258.972 291.343 932 122 124 155 255
377.343 350.112 1120 25 17 16 255
381.233 350.112 1120 22 18 18 255
383.748 348.862 1116 21 18 16 255
386.582 347.924 1113 23 16 18 255
390.448 347.924 1113 22 14 17 255
392.897 346.673 1109 19 16 15 255
399.468 339.171 1085 18 14 14 255
401.75 337.921 1081 19 13 15 255
405.505 337.921 1081 19 14 14 255
409.259 337.921 1081 22 16 11 255
411.868 336.983 1078 19 14 15 255
415.612 336.983 1078 18 17 28 255
417.8 335.732 1074 29 31 44 255
428.693 332.606 1064 25 21 22 255
432.388 332.606 1064 20 15 17 255
433.625 330.731 1058 17 15 14 255
436.06 329.793 1055 15 15 14 255
438.474 328.855 1052 15 14 17 255
440.446 327.605 1048 15 15 14 255
442.815 326.667 1045 17 14 21 255
445.163 325.729 1042 17 14 18 255
446.198 323.854 1036 18 16 15 255
448.494 322.916 1033 20 13 15 255
450.769 321.978 1030 18 16 15 255
449.936 318.852 1020 16 16 16 255
454.812 319.79 1023 17 17 20 255
457.021 318.852 1020 15 15 16 255
460.564 318.852 1020 14 16 15 255
464.107 318.852 1020 17 15 20 255
477.569 316.039 1011 18 23 21 255
478.702 314.476 1006 21 21 21 255
479.897 310.724 994 21 21 23 255
481.89 309.787 991 21 21 27 255
485.332 309.787 991 22 20 25 255
485.815 307.911 985 24 23 21 255
-919.891 573.357 1814 74 76 73 255
-913.591 573.357 1814 78 80 78 255
-912.292 576.518 1824 83 89 85 255
-905.956 576.518 1824 90 88 92 255
-899.621 576.518 1824 99 103 99 255
-897.693 579.362 1833 106 117 106 255
-891.327 579.362 1833 108 116 115 255
-884.96 579.362 1833 107 117 105 255
-883.387 582.523 1843 91 96 110 255
-769.92 511.407 1618 47 21 34 255
-764.3 511.407 1618 30 28 13 255
-755.398 509.194 1611 89 81 78 255
-746.079 506.666 1603 136 121 103 255
-744.207 509.194 1611 141 125 103 255
-734.943 506.666 1603 147 129 107 255
-729.376 506.666 1603 147 129 104 255
-727.42 509.194 1611 147 126 106 255
-721.825 509.194 1611 152 130 108 255
-719.341 511.407 1618 155 134 116 255
-713.721 511.407 1618 154 135 112 255
-711.603 513.935 1626 153 132 107 255
-709.428 516.464 1634 144 132 113 255
-710.213 521.205 1649 82 88 77 255
-704.486 521.205 1649 33 24 54 255
-977.976 735.503 2327 22 34 49 255
-963.642 730.762 2312 17 28 49 255
-949.411 726.02 2297 16 20 42 255
-941.433 726.02 2297 21 23 46 255
-933.455 726.02 2297 24 26 48 255
-925.477 726.02 2297 26 29 50 255
-917.498 726.02 2297 28 31 42 255
-897.245 716.222 2266 35 39 56 255
-889.375 716.222 2266 41 54 63 255
-881.504 716.222 2266 42 49 66 255
-873.634 716.222 2266 47 50 70 255
-871.494 720.963 2281 48 55 75 255
-857.892 716.222 2266 44 54 75 255
-855.649 720.963 2281 43 54 77 255
-847.726 720.963 2281 43 53 72 255
-823.604 707.056 2237 45 51 71 255
-734.87 636.888 2015 45 50 72 255
-740.876 648.266 2051 40 49 71 255
-760.941 672.288 2127 38 50 68 255
-758.159 676.397 2140 39 49 70 255
-746.166 672.288 2127 39 46 66 255
-178.088 200.074 633 86 95 102 255
-175.89 200.074 633 97 101 114 255
-166.887 194.701 616 89 93 112 255
-150.829 183.006 579 75 79 96 255
-148.818 183.006 579 67 59 89 255
-146.807 183.006 579 58 47 79 255
-145.296 183.639 581 51 44 72 255
-142.785 183.006 579 46 23 50 255
-141.017 183.323 580 26 20 56 255
-139.242 183.639 581 19 24 59 255
-137.224 183.639 581 43 38 74 255
-135.206 183.639 581 60 70 78 255
-132.959 183.323 580 66 77 91 255
-130.945 183.323 580 74 82 89 255
-128.93 183.323 580 80 87 98 255
-126.916 183.323 580 79 85 96 255
-125.116 183.639 581 77 87 101 255
-123.098 183.639 581 78 87 99 255
-121.289 183.955 582 78 87 100 255
-119.267 183.955 582 78 86 96 255
-117.246 183.955 582 77 88 100 255
-115.422 184.271 583 79 85 96 255
-113.203 183.955 582 80 83 101 255
-111.372 184.271 583 75 82 92 255
-109.347 184.271 583 66 69 101 255
-107.691 184.903 585 65 64 88 255
-105.839 185.219 586 68 56 93 255
-103.804 185.219 586 67 45 92 255
-101.942 185.535 587 69 50 93 255
-99.9035 185.535 587 73 65 104 255
-98.1981 186.167 589 79 78 108 255
-96.4788 186.799 591 86 91 119 255
-94.5858 187.115 592 92 99 128 255
-92.6859 187.431 593 96 100 130 255
-90.4734 187.115 592 100 104 135 255
-88.4172 187.115 592 104 108 139 255
-90.2997 195.649 619 109 112 143 255
-88.5769 196.598 622 116 117 145 255
-86.5555 196.914 623 118 112 144 255
-84.527 197.23 624 115 112 140 255
-82.3597 197.23 624 126 136 157 255
-87.9031 222.2 703 174 178 195 255
-85.4614 222.2 703 197 186 214 255
-82.7834 221.567 701 223 221 234 255
-80.3486 221.567 701 246 249 248 255
-77.9138 221.567 701 254 254 254 255
-75.6944 222.2 703 254 254 254 255
-73.461 222.832 705 254 254 254 255
-71.2138 223.464 707 254 254 254 255
-68.8554 223.78 708 254 254 254 255
-66.8651 225.36 713 254 254 254 255
-64.479 225.676 714 254 254 254 255
-62.2595 226.625 717 254 254 254 255
-60.0192 227.573 720 254 254 254 255
-57.6782 228.205 722 254 254 254 255
-55.3997 229.153 725 254 254 254 255
-52.8815 229.153 725 254 254 254 255
-50.4328 229.469 726 254 254 254 255
-48.1091 230.417 729 254 254 250 255
-45.5771 230.417 729 254 254 242 255
-43.1631 231.05 731 254 254 252 255
-40.7908 231.998 734 254 254 254 255
-38.3977 232.946 737 254 254 254 255
-35.9351 233.578 739 254 254 254 255
-33.5489 234.842 743 254 254 254 255
-31.135 236.107 747 254 254 254 255
-28.5786 236.423 748 254 254 254 255
-26.05 237.055 750 254 254 254 255
-23.5388 238.003 753 254 254 254 255
-20.9789 238.635 755 254 254 254 255
-18.4295 239.584 758 254 254 254 255
-15.8384 240.216 760 254 254 254 255
-13.2508 241.164 763 254 254 254 255
-10.6006 241.164 763 254 254 254 255
-7.9713 241.796 765 254 254 254 255
-5.3142 241.796 765 254 254 254 255
-2.66405 242.428 767 254 254 254 255
0 242.744 768 254 254 254 255
2.66405 242.428 767 254 254 254 255
5.33504 242.744 768 254 254 254 255
8.00256 242.744 768 254 254 254 255
10.6701 242.744 768 254 254 254 255
13.3723 243.376 770 254 254 254 255
16.0885 244.009 772 254 254 254 255
18.7942 244.325 773 254 254 254 255
21.5902 245.589 777 254 254 254 255
24.3515 246.221 779 254 254 254 255
27.092 246.537 780 254 254 254 255
29.8776 247.169 782 254 254 254 255
32.7605 248.434 786 254 254 254 255
35.626 249.382 789 194 205 198 255
38.4637 250.014 791 104 1 77 255
41.3153 250.646 793 118 71 149 255
44.2919 251.91 797 208 254 254 255
47.1192 252.227 798 254 254 254 255
49.891 252.227 798 254 254 254 255
52.6627 252.227 798 254 254 254 255
55.7123 253.491 802 254 254 254 255
58.7896 254.755 806 254 254 254 255
61.742 255.387 808 254 254 254 255
64.7082 256.019 810 254 254 254 255
67.6883 256.652 812 254 254 254 255
70.6823 257.284 814 254 254 254 255
73.5096 257.284 814 208 194 177 255
76.1494 256.652 812 125 79 102 255
78.9697 256.652 812 85 81 124 255
81.7901 256.652 812 82 4 92 255
84.923 257.6 815 168 254 254 255
88.3998 259.496 821 254 254 254 255
91.4737 260.128 823 254 254 254 255
95.02 262.025 829 254 254 254 255
98.3717 263.289 833 254 254 254 255
101.508 263.921 835 254 254 254 255
104.658 264.553 837 254 254 254 255
107.823 265.186 839 254 254 254 255
111.265 266.45 843 254 254 254 255
114.464 267.082 845 254 254 254 255
118.371 269.294 852 254 254 254 255
124.321 275.932 873 254 254 254 255
128.374 278.145 880 254 254 254 255
131.73 278.777 882 254 254 254 255
135.099 279.409 884 254 254 254 255
138.638 280.357 887 254 254 254 255
141.719 280.357 887 242 254 254 255
143.984 278.777 882 120 30 33 255
155.05 293.948 930 34 20 51 255
157.769 293 927 54 46 64 255
160.989 293 927 46 45 58 255
163.854 292.368 925 44 46 59 255
166.525 291.42 922 44 46 62 255
168.807 289.839 917 49 50 71 255
171.242 288.575 913 57 56 82 255
173.458 286.995 908 67 67 91 255
176.029 286.046 905 75 74 101 255
179.172 286.046 905 80 83 110 255
183.927 288.575 913 86 88 114 255
187.098 288.575 913 88 89 119 255
190.686 289.207 915 87 88 116 255
193.864 289.207 915 88 89 117 255
197.042 289.207 915 89 92 117 255
200.658 289.839 917 88 93 115 255
203.843 289.839 917 83 82 110 255
207.028 289.839 917 80 72 106 255
210.213 289.839 917 79 77 106 255
214.096 290.787 920 78 80 105 255
216.583 289.839 917 80 73 110 255
220.487 290.787 920 85 91 119 255
222.953 289.839 917 96 102 126 255
226.138 289.839 917 102 102 131 255
228.323 288.575 913 101 102 135 255
231.494 288.575 913 105 107 139 255
235.693 289.839 917 109 115 146 255
239.66 290.787 920 106 107 139 255
244.175 292.368 925 99 99 130 255
247.923 293 927 99 102 138 255
251.956 293.948 930 107 112 149 255
255.186 293.948 930 116 123 153 255
258.416 293.948 930 121 124 155 255
262.209 294.58 932 123 127 160 255
383.748 352.738 1116 21 19 18 255
397.888 344.836 1091 19 18 19 255
399.468 342.94 1085 19 16 15 255
401.75 341.675 1081 21 13 14 255
405.505 341.675 1081 21 17 15 255
409.259 341.675 1081 18 14 16 255
411.868 340.727 1078 16 15 19 255
415.612 340.727 1078 19 13 29 255
419.356 340.727 1078 35 21 43 255
428.693 336.302 1064 37 27 24 255
432.388 336.302 1064 22 17 22 255
433.625 334.406 1058 17 15 14 255
436.06 333.457 1055 14 14 14 255
438.474 332.509 1052 14 14 12 255
439.186 330.297 1045 14 14 15 255
441.544 329.348 1042 15 13 18 255
445.163 329.348 1042 15 16 18 255
446.198 327.452 1036 15 13 18 255
447.192 325.556 1030 16 16 16 255
449.019 324.291 1026 16 16 16 255
451.259 323.343 1023 16 16 19 255
453.478 322.395 1020 16 14 22 255
455.677 321.447 1017 16 14 18 255
459.209 321.447 1017 17 16 18 255
461.377 320.498 1014 18 18 24 255
478.448 313.229 991 23 17 29 255
481.89 313.229 991 21 20 31 255
485.332 313.229 991 21 22 24 255
490.254 314.177 994 22 22 28 255
-919.891 579.658 1814 80 85 84 255
-913.591 579.658 1814 84 88 86 255
-912.292 582.853 1824 89 90 92 255
-905.956 582.853 1824 94 96 100 255
-899.621 582.853 1824 100 108 102 255
-897.693 585.729 1833 103 110 106 255
-891.327 585.729 1833 104 108 107 255
-884.96 585.729 1833 104 102 97 255
-883.387 588.924 1843 75 91 102 255
-769.92 517.026 1618 25 9 24 255
-764.3 517.026 1618 24 30 17 255
-751.647 512.233 1603 86 80 78 255
-742.821 509.996 1596 135 125 104 255
-737.278 509.996 1596 145 128 101 255
-731.734 509.996 1596 147 130 107 255
-729.376 512.233 1603 149 129 105 255
-727.42 514.79 1611 151 126 103 255
-718.24 512.233 1603 155 140 109 255
-716.229 514.79 1611 157 138 114 255
-713.721 517.026 1618 157 133 112 255
-711.603 519.583 1626 158 135 107 255
-709.428 522.139 1634 140 134 115 255
-706.768 524.376 1641 69 71 64 255
-701.068 524.376 1641 21 21 56 255
-963.642 738.792 2312 25 31 52 255
-949.411 733.999 2297 28 28 44 255
-941.433 733.999 2297 36 39 54 255
-933.455 733.999 2297 41 47 58 255
-925.477 733.999 2297 42 52 63 255
-911.107 728.886 2281 43 55 65 255
-897.245 724.093 2266 44 57 72 255
-889.375 724.093 2266 44 55 75 255
-881.504 724.093 2266 43 56 76 255
-879.417 728.886 2281 43 56 74 255
-877.607 733.999 2297 43 55 78 255
-775.998 667.213 2088 45 53 74 255
-768.746 667.213 2088 42 51 74 255
-761.494 667.213 2088 41 53 73 255
-754.241 667.213 2088 43 51 75 255
-751.64 671.368 2101 43 49 72 255
-739.737 667.213 2088 42 48 74 255
-732.484 667.213 2088 45 46 71 255
-725.232 667.213 2088 44 46 71 255
-717.98 667.213 2088 38 48 72 255
-168.04 188.533 590 91 97 113 255
-165.147 187.574 587 95 92 115 255
-151.09 185.337 580 58 53 78 255
-148.818 185.018 579 47 36 70 255
-146.807 185.018 579 40 31 42 255
-145.046 185.337 580 25 26 47 255
-143.032 185.337 580 23 18 45 255
-140.774 185.018 579 44 56 76 255
-139.242 185.657 581 65 82 87 255
-136.752 185.018 579 78 90 104 255
-134.974 185.337 580 83 92 112 255
-132.501 184.698 578 86 89 114 255
-130.719 185.018 579 88 91 118 255
-128.93 185.337 580 90 95 120 255
-126.916 185.337 580 90 96 122 255
-125.116 185.657 581 90 94 125 255
-123.31 185.976 582 89 93 121 255
-121.289 185.976 582 91 93 121 255
-119.267 185.976 582 91 94 122 255
-117.447 186.296 583 91 95 123 255
-115.422 186.296 583 99 100 125 255
-112.619 185.018 579 99 98 122 255
-110.99 185.657 581 90 97 115 255
-108.597 185.018 579 90 99 116 255
-106.77 185.337 580 90 102 112 255
-105.659 186.935 585 86 94 108 255
-103.627 186.935 585 81 85 101 255
-101.942 187.574 587 75 59 89 255
-100.074 187.893 588 53 49 88 255
-98.3648 188.533 590 50 46 76 255
-96.4788 188.852 591 67 60 97 255
-94.426 188.852 591 76 83 107 255
-92.5296 189.172 592 86 96 122 255
-90.4734 189.172 592 92 101 130 255
-88.4172 189.172 592 98 103 135 255
-86.6527 189.811 594 105 108 141 255
-88.2921 198.119 620 111 118 145 255
-86.5555 199.078 623 115 121 146 255
-84.3916 199.078 623 113 116 145 255
-82.3597 199.397 624 125 126 155 255
-87.9031 224.641 703 178 172 193 255
-85.4614 224.641 703 197 184 213 255
-82.7834 224.002 701 223 219 236 255
-80.3486 224.002 701 244 237 251 255
-77.9138 224.002 701 253 254 254 255
-75.6944 224.641 703 253 253 254 255
-73.461 225.28 705 252 252 253 255
-71.2138 225.919 707 253 254 254 255
-68.8554 226.239 708 254 254 254 255
-66.6776 227.198 711 254 254 254 255
-64.479 228.156 714 254 254 254 255
-62.1727 228.795 716 254 254 254 255
-60.0192 230.074 720 254 254 254 255
-57.6782 230.713 722 254 254 254 255
-55.3997 231.671 725 254 254 254 255
-52.8815 231.671 725 254 254 254 255
-50.3633 231.671 725 253 254 254 255
-47.9112 231.991 726 253 254 254 255
-45.5771 232.95 729 254 254 254 255
-43.1631 233.589 731 254 254 254 255
-40.7908 234.547 734 254 254 254 255
-38.3456 235.186 736 254 254 254 255
-35.9351 236.145 739 254 254 254 255
-33.5038 237.104 742 254 254 254 255
-30.9682 237.423 743 254 254 254 255
-28.5404 238.701 747 254 254 254 255
-25.9805 239.021 748 254 254 254 255
-23.5075 240.299 752 254 254 254 255
-20.9789 241.258 755 254 254 254 255
-18.3809 241.577 756 254 254 254 255
-15.8384 242.855 760 254 254 254 255
-13.216 243.175 761 254 254 254 255
-10.6006 243.814 763 254 254 254 255
-7.9713 244.453 765 254 254 254 255
-5.3142 244.453 765 254 254 254 255
-2.6571 244.453 765 254 254 254 255
0 245.092 767 254 254 254 255
2.66405 245.092 767 254 254 254 255
5.33504 245.412 768 254 254 254 255
7.99214 245.092 767 254 254 254 255
10.6701 245.412 768 254 254 254 255
13.3376 245.412 768 254 254 254 255
16.0468 246.051 770 254 254 254 255
18.7942 247.01 773 254 254 254 255
21.5902 248.288 777 254 254 254 255
24.3515 248.927 779 254 254 254 255
27.0573 248.927 779 254 254 254 255
29.8776 249.885 782 254 254 254 255
32.7605 251.164 786 254 254 254 255
35.5808 251.803 788 194 206 199 255
38.3664 252.122 789 108 1 78 255
41.2111 252.761 791 117 51 142 255
44.1808 254.04 795 204 254 254 255
47.0602 254.679 797 254 254 254 255
49.891 254.998 798 254 254 254 255
52.6627 254.998 798 254 254 254 255
55.5733 255.637 800 254 254 254 255
58.6438 256.916 804 254 254 254 255
61.5891 257.555 806 254 254 254 255
64.5484 258.194 808 254 254 254 255
67.6883 259.472 812 254 254 254 255
70.6823 260.111 814 254 254 254 255
73.5096 260.111 814 208 207 204 255
76.1494 259.472 812 124 89 100 255
78.7752 258.833 810 86 88 127 255
81.7901 259.472 812 70 14 90 255
84.8188 260.111 814 154 221 253 255
88.1845 261.709 819 254 254 254 255
91.2514 262.348 821 254 254 254 255
95.02 264.904 829 254 254 254 255
98.1356 265.543 831 254 254 254 255
101.022 265.543 831 254 254 254 255
104.408 266.821 835 254 254 254 255
107.566 267.461 837 254 254 254 255
111.001 268.739 841 254 254 254 255
114.193 269.378 843 254 254 254 255
116.843 268.739 841 254 254 254 255
124.321 278.964 873 254 254 254 255
128.374 281.201 880 254 254 254 255
131.73 281.84 882 254 254 254 255
135.099 282.479 884 254 254 254 255
138.638 283.438 887 254 254 254 255
141.719 283.438 887 236 254 246 255
144.31 282.479 884 121 3 26 255
155.05 297.178 930 40 16 50 255
158.28 297.178 930 50 42 62 255
160.989 296.22 927 43 42 58 255
164.209 296.22 927 41 45 56 255
167.067 295.581 925 44 45 61 255
168.807 293.024 917 50 50 70 255
171.242 291.746 913 57 56 80 255
173.458 290.148 908 66 64 91 255
176.029 289.19 905 75 76 100 255
179.766 290.148 908 81 84 110 255
183.323 290.787 910 85 87 114 255
187.098 291.746 913 86 86 116 255
190.686 292.385 915 86 87 115 255
193.44 291.746 913 85 88 113 255
196.611 291.746 913 84 87 111 255
200.22 292.385 915 82 80 104 255
203.398 292.385 915 76 71 100 255
207.028 293.024 917 72 73 99 255
209.755 292.385 915 73 69 99 255
212.933 292.385 915 69 69 106 255
216.111 292.385 915 76 85 115 255
219.289 292.385 915 90 95 124 255
222.467 292.385 915 95 99 127 255
225.152 291.746 913 97 102 130 255
227.573 290.787 910 101 101 137 255
231.494 291.746 913 107 110 142 255
235.179 292.385 915 110 118 152 255
238.878 293.024 917 108 103 143 255
243.383 294.622 922 102 97 131 255
247.388 295.581 925 100 99 137 255
251.143 296.22 927 106 109 146 255
254.363 296.22 927 113 121 150 255
258.416 297.178 930 117 122 152 255
261.646 297.178 930 119 120 153 255
396.794 347.667 1088 21 14 19 255
399.468 346.708 1085 21 13 14 255
401.75 345.43 1081 21 15 12 255
405.505 345.43 1081 21 14 15 255
408.124 344.471 1078 18 14 20 255
410.34 343.193 1074 18 17 20 255
414.07 343.193 1074 21 12 26 255
417.8 343.193 1074 27 22 33 255
430.304 341.276 1068 26 25 32 255
434.014 341.276 1068 23 17 24 255
436.084 339.998 1064 17 12 17 255
434.82 336.163 1052 15 15 15 255
436.806 334.885 1048 15 16 13 255
437.925 332.968 1042 16 16 16 255
440.273 332.009 1039 13 16 19 255
443.882 332.009 1039 12 13 21 255
444.906 330.092 1033 17 12 18 255
447.192 329.133 1030 20 13 16 255
449.019 327.855 1026 17 12 16 255
452.582 327.855 1026 16 14 22 255
454.812 326.896 1023 18 16 21 255
455.677 324.979 1017 20 12 18 255
459.209 324.979 1017 22 13 22 255
478.448 316.671 991 20 17 30 255
483.349 317.629 994 23 19 27 255
486.802 317.629 994 24 19 24 255
490.254 317.629 994 22 21 32 255
-919.891 585.958 1814 86 89 88 255
-918.627 589.188 1824 88 93 90 255
-912.292 589.188 1824 92 96 96 255
-905.956 589.188 1824 95 100 102 255
-904.06 592.096 1833 98 103 102 255
-897.693 592.096 1833 97 99 102 255
-891.327 592.096 1833 98 100 105 255
-884.96 592.096 1833 101 104 101 255
-883.387 595.326 1843 66 81 93 255
-769.92 522.646 1618 23 3 19 255
-764.3 522.646 1618 46 41 16 255
-745.082 513.279 1589 110 109 87 255
-735.84 510.695 1581 143 125 100 255
-730.348 510.695 1581 149 130 100 255
-728.525 513.279 1589 152 131 104 255
-726.191 515.54 1596 149 130 107 255
-723.808 517.801 1603 151 128 103 255
-718.24 517.801 1603 160 142 111 255
-716.229 520.385 1611 160 136 111 255
-710.634 520.385 1611 153 134 110 255
-711.603 525.231 1626 153 136 109 255
-705.955 525.231 1626 124 125 104 255
-700.307 525.231 1626 52 24 49 255
-977.976 751.668 2327 32 46 54 255
-963.642 746.822 2312 41 51 59 255
-955.611 746.822 2312 47 55 60 255
-947.581 746.822 2312 49 59 65 255
-933.455 741.977 2297 49 57 74 255
-919.03 736.809 2281 48 54 72 255
-911.107 736.809 2281 46 55 74 255
-891.702 727.441 2252 46 53 77 255
-783.251 674.466 2088 43 53 74 255
-775.998 674.466 2088 41 50 73 255
-764.328 670.589 2076 39 51 75 255
-757.117 670.589 2076 39 50 72 255
-745.211 666.39 2063 38 51 74 255
-738.045 666.39 2063 39 50 72 255
-730.88 666.39 2063 41 47 71 255
-728.275 670.589 2076 38 50 71 255
-716.549 666.39 2063 36 49 71 255
-705.257 662.514 2051 37 49 74 255
-168.04 190.582 590 87 88 115 255
-165.709 190.259 589 88 88 110 255
-163.108 189.613 587 86 90 111 255
-161.069 189.613 587 84 90 106 255
-153.105 187.352 580 53 45 78 255
-150.829 187.029 579 35 39 57 255
-148.561 186.706 578 35 37 57 255
-146.807 187.029 579 40 37 52 255
-145.296 187.675 581 45 66 76 255
-143.032 187.352 580 71 86 91 255
-140.774 187.029 579 83 87 106 255
-138.523 186.706 578 83 94 114 255
-136.044 186.06 576 85 91 120 255
-134.043 186.06 576 87 92 117 255
-132.501 186.706 578 90 94 118 255
-130.493 186.706 578 92 97 122 255
-128.708 187.029 579 94 98 122 255
-126.697 187.029 579 94 97 123 255
-125.116 187.675 581 93 97 125 255
-108.222 186.383 577 93 97 124 255
-106.402 186.706 578 94 98 129 255
-104.575 187.029 579 95 97 126 255
-102.741 187.352 580 93 95 122 255
-101.769 189.29 586 89 98 113 255
-99.9035 189.613 587 82 93 108 255
-98.1981 190.259 589 68 75 84 255
-96.3155 190.582 590 42 42 82 255
-94.426 190.905 591 42 37 68 255
-92.3733 190.905 591 64 49 95 255
-90.3206 190.905 591 75 82 114 255
-88.4172 191.228 592 86 98 127 255
-86.9445 192.52 596 96 104 135 255
-85.1592 193.166 598 103 111 139 255
-83.36 193.812 600 109 116 144 255
-87.9031 227.083 703 182 181 190 255
-85.4614 227.083 703 198 197 216 255
-82.7834 226.437 701 231 232 241 255
-80.3486 226.437 701 251 254 254 255
-77.9138 226.437 701 254 254 252 255
-75.802 227.406 704 254 254 254 255
-73.461 227.729 705 252 252 253 255
-71.2138 228.375 707 252 253 254 255
-68.8554 228.698 708 254 254 254 255
-66.6776 229.667 711 254 254 254 255
-64.3886 230.313 713 254 254 254 255
-61.999 230.636 714 254 254 254 255
-59.9358 232.251 719 254 254 254 255
-57.6782 233.22 722 254 254 254 255
-55.2468 233.543 723 254 254 254 255
-52.7356 233.543 723 254 254 254 255
-50.3633 234.189 725 254 254 254 255
-47.9112 234.513 726 254 254 254 255
-45.5771 235.482 729 254 254 254 255
-43.1631 236.128 731 254 254 254 255
-40.6797 236.451 732 254 254 254 255
-38.3456 237.743 736 254 254 254 255
-35.9351 238.712 739 254 254 254 255
-33.4135 239.035 740 254 254 254 255
-30.9266 239.681 742 254 254 254 255
-28.464 240.65 745 254 254 254 255
-25.9805 241.619 748 254 254 254 255
-23.5075 242.911 752 254 254 254 255
-20.9234 243.234 753 254 254 254 255
-18.3566 243.88 755 254 254 254 255
-15.755 244.203 756 254 254 254 255
-13.216 245.818 761 254 254 254 255
-10.5728 245.818 761 254 254 254 255
-7.9713 247.11 765 254 254 254 255
-5.3142 247.11 765 254 254 254 255
-2.6571 247.11 765 254 254 254 255
0 247.11 765 254 254 254 255
2.6571 247.11 765 254 254 254 255
5.3142 247.11 765 254 254 254 255
7.99214 247.756 767 254 254 254 255
10.6562 247.756 767 254 254 254 255
13.3202 247.756 767 254 254 254 255
16.0468 248.725 770 254 254 254 255
18.7942 249.694 773 254 254 254 255
21.5902 250.987 777 254 254 254 255
24.3515 251.633 779 254 254 254 255
27.0573 251.633 779 254 254 254 255
29.8012 251.956 780 254 254 254 255
32.7605 253.894 786 254 254 254 255
35.5808 254.54 788 191 195 197 255
38.3664 254.863 789 102 1 80 255
41.2111 255.509 791 117 62 138 255
44.1808 256.801 795 205 254 254 255
47.0602 257.447 797 254 254 254 255
49.891 257.77 798 254 254 254 255
52.6627 257.77 798 254 254 254 255
55.5733 258.416 800 254 254 254 255
58.4979 259.062 802 254 254 254 255
61.5891 260.354 806 254 254 254 255
64.5484 261 808 254 254 254 255
67.5216 261.646 810 254 254 254 255
70.335 261.646 810 254 254 254 255
73.329 262.292 812 207 193 199 255
75.9618 261.646 810 126 92 99 255
78.7752 261.646 810 87 80 119 255
81.7901 262.292 812 60 47 91 255
84.6104 262.292 812 146 211 248 255
87.9691 263.907 817 254 254 254 255
91.2514 265.199 821 254 254 254 255
94.7907 267.138 827 254 254 254 255
97.8994 267.784 829 254 254 254 255
101.022 268.43 831 254 254 254 255
104.158 269.076 833 254 254 254 255
107.566 270.368 837 254 254 254 255
111.001 271.66 841 254 254 254 255
114.193 272.306 843 254 254 254 255
117.121 272.306 843 254 254 254 255
124.606 282.642 875 254 254 254 255
128.374 284.258 880 254 254 254 255
131.73 284.904 882 254 254 254 255
134.793 284.904 882 254 254 254 255
138.169 285.55 884 254 254 254 255
141.24 285.55 884 231 254 242 255
143.984 284.904 882 108 2 22 255
155.383 301.055 932 31 28 46 255
158.28 300.409 930 48 42 59 255
161.51 300.409 930 42 44 56 255
164.209 299.44 927 41 45 56 255
167.429 299.44 927 44 43 60 255
168.807 296.209 917 49 47 69 255
170.68 293.948 910 55 58 79 255
173.458 293.302 908 65 64 90 255
176.029 292.333 905 75 76 99 255
179.172 292.333 905 81 86 107 255
183.323 293.948 910 84 89 112 255
187.098 294.917 913 85 86 111 255
